# .PCD v.7 - Point Cloud Data file format
VERSION .7
FIELDS x y z
SIZE 4 4 4
TYPE F F F
COUNT 1 1 1
WIDTH 1328
HEIGHT 1
VIEWPOINT 0 0 0 1 0 0 0
POINTS 1328
DATA ascii
-14.39659977 54.09809875 6.47467995
-14.38070011 36.89030075 65.76799774
-14.36880016 43.89709854 43.52500153
-14.36359978 50.28369904 26.50830078
-14.36069965 60.07220078 22.72690010
-14.35519981 7.90779018 54.72679901
-14.34020042 5.15010977 57.02190018
-14.33759975 2.94218993 53.56309891
-14.24607563 58.41609955 2.64089036
-14.32489967 26.00110054 64.84680176
-14.31219959 -38.01330185 68.20230103
-14.31157970 61.62078857 4.31375790
-14.29786777 -16.43887329 0.51050448
-14.30370045 61.51229858 19.10750008
-14.28589725 62.22293854 7.47437000
-14.29556847 46.13390732 62.03857040
-14.28439999 59.02270126 24.02190018
-14.27729988 43.32989883 33.35409927
-14.27519989 -9.37602997 16.38990021
-14.26930046 46.86410141 29.33830070
-14.26630020 43.30550003 64.02729797
-14.22469997 56.85490036 1.95827997
-14.22200012 25.89920044 59.59600067
-14.21049976 -17.52350044 10.78709984
-14.20820045 0.11812800 69.88259888
-14.19099998 5.66309977 62.26879883
-14.19060040 -37.59450150 59.90029907
-14.18540001 54.82619858 1.51327002
-14.17399979 5.55240011 54.14120102
-14.16219997 35.02909851 41.80979919
-14.07425690 -15.89106941 14.69557285
-14.14900017 7.30706978 63.83890152
-14.12759972 54.74769974 7.23912001
-14.11470032 61.26599884 3.20162010
-14.10859966 59.28210068 14.04249954
-14.08606052 -15.85406017 2.66465783
-14.10639954 -7.54151011 21.82340050
-13.78489208 21.11977196 64.10662079
-14.10009956 -12.61429977 31.68869972
-14.09799957 -38.77650070 53.00830078
-14.08300018 62.62080002 11.31000042
-14.07050037 57.80889893 25.47270012
-14.06739998 -15.64869976 37.74430084
-13.69188881 -21.55241966 0.83557308
-14.05630016 10.45709991 63.41949844
-14.05539989 62.50519943 15.10490036
-13.75082111 -22.38967896 1.67598307
-14.02589989 2.79225993 65.83399963
-14.01939964 -9.93017006 13.16849995
-14.01220036 -15.11870003 4.47243977
-13.98890018 12.26949978 59.66460037
-13.97049999 -30.41180038 81.51750183
-13.96199989 -10.58889961 11.18990040
-13.95269966 8.88504028 65.28440094
-13.95020008 4.15366983 64.11460114
-13.93640041 -0.38315299 49.55730057
-13.91779995 13.20520020 55.95899963
-13.51353741 57.56901550 8.92989063
-13.91549969 23.59539986 65.29329681
-13.63722134 -20.00860214 0.16280097
-13.90769958 -14.71409988 17.69169998
-13.88409996 -13.67350006 36.50709915
-13.85420036 -33.84260178 79.26439667
-13.82639980 -14.42990017 5.97356987
-13.82400036 52.71239853 3.95460010
-13.81260014 56.32559967 7.88992977
-13.80900002 -0.59876502 72.67520142
-13.54063892 2.38176656 48.51863861
-13.75010014 -13.52429962 23.09000015
-13.74730015 -13.26140022 34.31389999
-13.61625576 -18.58051872 0.08271689
-13.52126217 56.06492233 27.56094360
-13.72159958 58.24629974 10.29640007
-13.71619987 52.79010010 2.60859990
-13.62366104 -22.13146782 3.18778419
-13.70660019 -32.56299973 44.40560150
-13.68459988 -5.72909021 26.72439957
-13.67469978 -36.96559906 48.67070007
-13.66600037 49.48809814 47.43659973
-13.65820026 7.61614990 50.79159927
-13.53248501 52.96746063 29.86975670
-13.63549995 21.57229996 65.85919952
-13.63070011 46.19400024 29.11499977
-13.62339973 -36.19150162 75.75839996
-13.62329960 53.92300034 22.75760078
-13.62240028 55.11420059 21.24939919
-13.61970043 51.26539993 51.62630081
-13.60799980 52.67940140 24.15089989
-13.59630013 22.82710075 61.91709900
-13.58920002 51.61510086 54.14979935
-13.57429981 49.83110046 26.44149971
-13.56719971 9.84601021 51.25970078
-13.53460026 53.24980164 2.07800007
-13.52210045 47.65969849 43.20309830
-13.51739979 -35.03310013 46.52959824
-13.51299953 -27.23670006 41.14049911
-13.51169968 56.46820068 1.58252001
-13.50780010 48.83119965 33.76259995
-13.50380039 5.32555008 50.40029907
-13.49680042 5.17105007 65.73709869
-13.46560001 50.38660049 47.70360184
-13.45950031 51.40980148 57.75839996
-13.44439983 60.86199951 2.59177995
-13.44219971 53.96929932 6.32959986
-13.43750000 57.48580170 17.21509933
-13.43620014 -19.23819923 6.96120977
-13.41359997 58.55130005 13.83689976
-13.41310024 -36.92440033 66.40699768
-13.40340042 -13.37230015 7.86341000
-13.40310001 -16.41780090 37.81959915
-13.40120029 1.32447004 68.30400085
-13.35690022 -19.97999954 80.35959625
-13.32909966 11.46539974 66.28469849
-13.32779980 -2.35858011 45.26340103
-13.17440033 -18.00623703 0.93994558
-13.31779957 46.90380096 38.61230087
-13.30930042 37.85469818 37.90909958
-13.30910015 12.95419979 64.22070313
-13.30179977 -37.58420181 57.80659866
-13.27950001 42.77899933 67.51080322
-13.27449989 -2.66209006 39.94869995
-13.27120018 54.45780182 1.65445006
-13.27050018 47.01990128 64.76049805
-13.26970005 -17.77459908 8.76156044
-13.22949982 61.96749878 23.13579941
-13.22729969 42.12870026 32.93600082
-13.21949959 54.60459900 7.01698017
-13.21809959 49.62269974 62.19290161
-13.21000004 -12.38580036 9.62180042
-13.20759964 60.95339966 25.42110062
-13.20660019 3.22773004 67.24030304
-13.19979954 60.29069901 26.36569977
-13.19690037 -12.31070042 27.43210030
-13.18420029 61.46329880 24.52790070
-13.17560005 62.40890121 19.49650002
-13.14249992 53.90420151 3.97215009
-13.14019966 -19.90060043 5.35237980
-13.13790035 25.93239975 51.44219971
-13.09862614 53.99038696 2.68636465
-13.12220001 56.19240189 7.74094009
-13.10789967 14.94250011 61.85409927
-12.70797062 58.11341858 2.08258533
-13.10229969 49.65900040 43.09749985
-12.95700741 54.94787598 5.95050383
-13.09449959 20.49570084 62.00239944
-13.08979988 -38.48479843 51.79230118
-13.08676529 59.59008789 2.07009149
-13.07900047 16.46920013 64.81130219
-13.07400036 28.38660049 48.93669891
-13.07050037 -9.89822960 17.03359985
-13.06389999 -4.62200022 74.42810059
-13.06079960 13.02229977 52.06029892
-13.05690002 50.03039932 33.76720047
-13.02869987 -16.02599907 10.39330006
-13.02369976 57.47600174 8.73752022
-13.01739979 -16.52989960 4.89301014
-13.01690006 17.17760086 62.18730164
-12.98978424 -17.10566521 3.49817085
-13.00139999 -3.60456991 31.89039993
-12.99499989 54.17390060 30.17539978
-12.99380016 -10.42230034 13.75109959
-12.99300003 -25.00889969 81.47160339
-12.98530006 -15.85760021 6.41681004
-12.98130035 -11.17329979 11.72360039
-12.97700024 -2.11195993 46.01559830
-12.95489979 -20.26530075 0.88279599
-12.93350029 48.22909927 38.52310181
-12.93000031 -11.56589985 32.42910004
-12.84592915 -14.37778950 14.13542366
-12.90620041 53.93349838 4.00824022
-12.90299988 63.05459976 15.34309959
-12.90019989 6.43546009 67.73210144
-12.89260006 57.84859848 10.23149967
-12.88679981 4.95391989 47.68690109
-12.85205650 53.96433258 2.72051239
-12.85789967 16.07029915 60.01850128
-12.84309959 -13.94530010 10.13339996
-12.84099960 -9.34840012 75.80169678
-12.73906136 -20.39293098 3.36772156
-12.83699989 30.47100067 45.30839920
-12.67218018 55.21355438 2.30185008
-12.81449986 58.19089890 28.38129997
-12.71698761 55.06656647 6.17243958
-12.80249977 -19.16370010 0.84406000
-12.79930019 -14.83069992 8.27274036
-12.79010010 6.82436991 47.43960190
-12.77089977 56.00439835 1.62323999
-12.76939964 -17.55769920 6.84860992
-12.75549984 49.70529938 38.49499893
-12.74779987 -13.04990005 17.86090088
-12.72169971 -20.45660019 1.84824002
-12.71420002 -17.61610031 37.75249863
-12.71160030 51.48189926 33.79499817
-12.67290020 58.18510056 13.75039959
-12.67249966 -16.61100006 8.59025002
-12.66779995 -36.31100082 64.54100037
-12.61124706 -12.36618042 13.47324848
-12.63809967 -11.45940018 17.56369972
-12.62639999 -18.15859985 5.27308989
-12.60669994 16.28409958 67.01460266
-12.60070038 56.02590179 30.56660080
-12.57600021 35.31389999 69.10870361
-12.56999969 -35.93880081 70.71820068
-12.56949997 57.00640106 17.10610008
-12.56130028 -6.43584013 27.16440010
-12.51978207 56.33220291 7.02108145
-12.54259968 -0.97328103 46.36159897
-12.53180027 18.04829979 60.04529953
-12.52890015 10.93570042 68.37699890
-12.52770042 16.64209938 56.57960129
-12.52750015 54.96229935 20.96339989
-12.52530003 60.37919998 2.09653997
-12.52239990 53.77750015 22.50790024
-12.51780033 -8.08644962 22.34370041
-12.50730038 52.33900070 24.05240059
-12.50269985 -19.09729958 1.80127001
-12.48120022 52.53509903 4.02311993
-12.39109516 56.30211258 2.20739722
-12.40647888 -18.81651688 3.26632357
-12.46609974 8.72093964 47.46360016
-12.45510006 53.92079926 6.49223995
-12.44830036 54.68939972 7.11915016
-12.42360020 22.78899956 59.78049850
-12.41639996 -11.44470024 23.25869942
-12.40190029 52.40999985 2.64225006
-12.39879990 53.44169998 33.91590118
-12.39099979 63.33769989 11.42389965
-12.38799953 -14.12810040 77.36209869
-12.38269997 23.82539940 54.57429886
-12.32855320 58.74486160 1.97350788
-12.37779999 1.76686001 45.61800003
-12.37660027 49.33909988 26.63439941
-12.27543640 57.37631989 8.37783241
-12.35589981 57.88980103 10.17109966
-12.34290028 20.43280029 60.06900024
-12.33460045 -37.89540100 55.85889816
-12.33380032 -2.21392012 34.11600113
-12.25660038 51.80989838 38.69620132
-12.25319958 52.83349991 1.96194005
-12.24969959 16.13879967 52.88460159
-12.23929977 63.16189957 9.12254047
-12.23830032 -9.84778976 22.85309982
-12.17949963 -11.94330025 35.56209946
-12.15100002 52.62260056 47.45299911
-12.15050030 44.91410065 28.96229935
-12.09652710 62.87627792 7.19530392
-12.11690044 -34.99509811 47.34519958
-12.11639977 18.23069954 56.94380188
-12.11639977 44.91070175 68.96620178
-12.11639977 51.67340088 42.95510101
-12.10050011 -1.76605999 35.48820114
-12.08129978 -11.98449993 38.15480042
-12.06060028 22.93359947 57.29040146
-12.04689980 57.48189926 2.42596006
-12.03740025 33.84230042 40.44210052
-12.03059959 53.75059891 50.77510071
-12.01949978 -1.50461996 36.65999985
-12.00230026 11.54699993 48.03310013
-11.96599960 25.17499924 50.71630096
-11.81831646 62.16111755 3.64608741
-11.96469975 53.98469925 1.53424001
-11.96430016 42.00239944 70.21179962
-11.95820045 56.55799866 7.82775021
-11.95470047 21.76129913 51.30469894
-11.94649982 -36.08020020 62.61339951
-11.94550037 57.09899902 17.17239952
-11.89490032 -37.87680054 50.64950180
-11.89490032 17.92000008 53.25469971
-11.88739967 -32.79050064 44.96110153
-11.88700008 58.06900024 13.78670025
-11.88329983 19.65690041 57.11589813
-11.87940025 28.96599960 69.11910248
-11.87909985 -10.05609989 28.17049980
-11.87479973 20.90340042 57.20880127
-11.87380028 62.01100159 23.46330070
-11.86900043 -4.62772989 32.17969894
-11.86530018 -12.15040016 38.42039871
-11.85990047 53.94940186 54.00249863
-11.85470009 3.47656012 69.12640381
-11.85400009 61.76810074 2.76636004
-11.83469963 15.17029953 49.67530060
-11.78940010 -8.49728966 27.83830070
-11.77989960 48.81900024 66.28669739
-11.77670002 55.95589828 1.85977006
-11.76500034 19.28240013 53.53950119
-11.76290035 -0.06746000 71.58180237
-11.73069954 40.80879974 32.54460144
-11.71599960 -7.11237001 27.56349945
-11.70650005 21.70520020 53.89130020
-11.70629978 -30.66699982 42.89640045
-11.69410038 58.02930069 10.26439953
-11.67920017 36.80690002 37.10070038
-11.64918327 61.68845749 25.06157684
-11.61919975 53.34199905 58.39039993
-11.61180019 -27.89109993 80.20659637
-11.59529972 17.00219917 50.27989960
-11.59430027 21.75270081 50.24620056
-11.59140015 19.04409981 50.99010086
-11.58899975 25.07530022 49.80139923
-11.58889961 -9.37164974 33.31529999
-11.18838215 60.75915909 2.19867754
-11.53090000 54.77989960 7.50881004
-11.52530003 51.78699875 62.62350082
-11.52270031 18.91740036 49.94770050
-11.50949955 60.04290009 27.08839989
-11.50909996 3.86357999 44.77190018
-11.50539970 -19.74869919 37.80649948
-11.49639988 -37.97119904 54.65439987
-11.47679996 54.03179932 6.84507990
-11.46609974 25.78359985 69.10179901
-11.45969963 62.69200134 19.78980064
-11.42339993 5.56126022 44.21080017
-11.42080021 14.61940002 47.98529816
-11.41359997 -7.64878988 33.06470108
-11.40390015 56.44260025 8.09280014
-11.38510036 -2.69152999 42.05419922
-11.36929989 16.55190086 48.90200043
-11.36600018 -33.43000031 73.78160095
-11.34490013 52.62070084 4.35839987
-11.31379986 -5.99532986 32.63759995
-11.30080032 58.41889954 28.37220001
-11.30049992 16.47069931 69.02559662
-11.27350044 -36.14300156 60.89089966
-11.07646084 58.43588638 2.03120613
-10.84496021 57.36289215 2.31996799
-11.23789978 -34.62850189 68.96630096
-11.22449970 7.25790024 43.96640015
-11.21930027 -1.87844002 73.94860077
-11.15149975 52.48339844 2.81488991
-11.14739990 28.00919914 48.47150040
-11.07730007 -2.39669991 42.85869980
-11.05160046 57.88830185 13.83230019
-11.03419971 63.47150040 15.80519962
-11.01720047 57.38510132 17.40259933
-11.01249981 52.94570160 2.07240009
-11.00909996 22.00020027 69.40950012
-11.00109959 56.45429993 30.63409996
-10.98740005 55.11560059 21.31189919
-10.94769955 54.01739883 22.73660088
-10.94550037 57.67959976 8.94526958
-10.94009972 54.01399994 1.55862999
-10.91530037 -9.56457996 36.94260025
-10.91059971 -13.03320026 38.41419983
-10.90670013 58.13629913 10.22690010
-10.89210033 55.79740143 1.90243995
-10.88329983 52.63410187 24.33769989
-10.87570000 -3.49679995 34.63209915
-10.87030029 9.45855045 44.19660187
-10.80930042 -30.95070076 77.06330109
-10.80350018 1.12651002 70.45670319
-10.79010010 -1.95372999 43.40499878
-10.77890015 56.47019958 8.08500004
-10.71290016 -37.93669891 53.40560150
-10.70989990 -7.57486010 37.77909851
-10.64420033 -22.34550095 80.39179993
-10.52056789 -2.87966871 37.42771149
-10.62259960 49.65459824 26.71220016
-10.60410023 -30.72870064 43.13190079
-10.59990025 16.09830093 47.98860168
-10.58921051 30.06811333 45.71765518
-10.56949997 21.76910019 50.07400131
-10.56879997 55.02809906 7.62829018
-10.56779957 18.82270050 49.21519852
-10.56169987 -36.01150131 48.33639908
-10.53450012 -36.43099976 59.43420029
-9.93840408 58.71707153 2.16044068
-10.52239990 63.55270004 11.84360027
-10.45310020 55.75710297 6.80075312
-10.50559998 54.38830185 6.99870014
-10.49020004 57.73569870 8.58658028
-10.44620609 -4.54668236 37.07002258
-10.48589993 54.96179962 33.90129852
-10.48309994 6.53499985 70.56320190
-10.42729664 -5.56749439 37.42454910
-10.45370007 60.57379913 23.62689972
-10.44050026 45.45619965 29.19470024
-10.41059971 -9.74874020 39.09700012
-10.36021614 56.73607254 7.45413494
-10.40219975 -34.06779861 67.22450256
-10.38269997 40.80130005 32.61949921
-10.36379814 55.10720444 5.87124300
-10.37759972 -5.73556995 75.16909790
-10.36590004 58.40629959 10.71310043
-10.36040020 -32.67710114 45.76969910
-10.19342995 58.48415375 26.28614235
-10.31989956 2.99837995 70.47129822
-10.31770039 13.75769997 46.49420166
-10.28839970 -37.94110107 52.30429840
-10.24569988 53.00419998 4.59540987
-10.24419975 63.31449890 9.58388996
-10.05114460 60.22222519 2.23329997
-10.18150043 61.35010147 19.62809944
-10.16810036 33.69919968 40.42549896
-10.15299988 -9.98316002 39.32109833
-10.12880039 -16.25600052 77.94380188
-10.12810040 36.43119812 36.88930130
-10.10550022 54.45090103 46.97019958
-10.08940029 55.57529831 2.24406004
-10.08600044 41.65269852 71.77600098
-10.07289982 -28.61779976 41.42079926
-10.05599976 58.88079834 14.39480019
-10.01781273 62.95807266 7.80429411
-10.05080032 58.30379868 18.16320038
-10.03429985 34.79959869 72.09279633
-9.96332455 54.73914719 4.49942398
-10.00349998 53.70529938 38.56309891
-9.97743988 61.62710190 2.83951998
-9.97622967 -10.93060017 76.18180084
-9.94595051 56.87794495 2.63836360
-9.97257042 54.08489990 1.89121997
-9.95939064 55.31978989 7.26412964
-9.96757984 11.63290024 71.25279999
-9.96720028 52.85990143 3.04922009
-9.96152973 -13.76920033 37.51789856
-9.94136047 58.18799973 9.28079033
-9.93984032 13.57460022 46.19720078
-9.93964958 24.82049942 50.06520081
-9.67093658 56.57869720 27.72257614
-9.89074039 15.83469963 47.80089951
-9.89064026 -0.02628900 43.06840134
-9.88990974 53.45339966 42.74909973
-9.85064983 53.26879883 2.40524006
-9.73677444 62.10923386 3.95252347
-9.82968044 56.92910004 8.19400024
-9.82691002 -3.67762995 41.65620041
-9.73592281 55.71608734 2.67779899
-9.80871010 61.95460129 15.75650024
-9.80725002 54.78160095 50.23540115
-9.80657005 -36.71229935 58.21350098
-9.70060730 54.78943634 3.12464595
-9.78388977 -7.80166006 40.14329910
-9.76115990 59.21509933 11.11229992
-9.72677994 58.92319870 23.21139908
-9.69604969 18.74710083 48.74869919
-9.68824959 57.14170074 22.51549911
-9.67385960 57.98860168 25.00289917
-9.66574001 -34.05759811 65.37689972
-9.64363003 45.57979965 70.37079620
-9.46450138 54.78168869 3.02252126
-9.61275959 -3.50022006 42.03630066
-9.60875988 56.97200012 26.70070076
-9.59603024 5.75394011 41.62340164
-9.58924961 59.63470078 19.15439987
-9.57734013 2.13989997 42.23369980
-9.39085484 54.14421082 25.28373146
-9.51659012 54.36389923 4.81802988
-9.48521996 -7.95919991 40.37260056
-9.30502796 62.33889389 10.65336418
-9.47830009 21.85120010 49.68310165
-8.93638802 -34.43812943 46.94512177
-9.46903992 60.36970139 15.15030003
-9.46839046 -31.66460037 71.93579865
-9.46825981 -9.73050976 39.61019897
-9.44604015 -5.77162981 40.63109970
-9.43953037 54.81499863 54.25999832
-9.41559029 3.94092011 41.65750122
-9.36882019 55.80379868 2.26185989
-9.35052967 56.37630081 24.46520042
-9.30107975 -0.69036603 73.51360321
-9.29263020 8.18766022 41.83430099
-9.28639984 57.56959915 8.35151958
-9.27622032 -3.23058009 42.17039871
-9.27103996 59.06489944 9.51194954
-9.25428009 -21.91320038 38.03570175
-9.24495029 60.76739883 11.73890018
-9.22787952 54.37409973 3.64736009
-9.19215012 -36.78779984 49.53369904
-9.17838001 61.02050018 2.86366010
-9.17263985 -5.85972977 40.88819885
-9.17057991 57.35950089 2.55860996
-9.08261967 -36.95449829 56.75699997
-9.08156967 -34.22589874 63.94530106
-9.06637192 28.00935364 48.35186386
-9.06352997 54.18590164 59.20429993
-9.05889988 55.92449951 7.47443008
-9.05694962 50.31349945 67.41739655
-9.04646015 55.30730057 26.19009972
-9.02548981 55.27949905 6.76679993
-9.02134991 24.66690063 49.87279892
-8.92438793 62.11255264 7.70632553
-8.92942047 60.81079865 9.90258980
-8.92673969 54.10179901 30.53359985
-8.88498974 -7.42702007 40.41059875
-8.85089970 58.33240128 8.25374031
-8.84920025 61.36869812 3.75342989
-8.84895039 53.28269958 63.81069946
-8.81698036 16.58600044 71.74089813
-8.81651974 54.41239929 4.97580004
-8.80799007 51.81750107 27.44129944
-8.74367809 61.72575760 5.29992199
-8.79212856 60.16782379 2.91931081
-8.75502968 -5.22528982 41.30429840
-8.75360966 57.57089996 2.77392006
-8.72898006 56.06909943 2.29404998
-8.67265987 55.37509918 2.69297004
-8.63753986 54.30899811 27.86120033
-8.63436985 52.69260025 33.99860001
-8.37422276 60.72089386 7.10950184
-8.58601856 54.54346085 3.77575660
-8.58216953 -25.08930016 78.69460297
-8.57443047 -30.83270073 44.00659943
-8.55937004 -3.33884001 74.84490204
-8.05385590 -34.68598938 62.06007385
-8.44563961 48.59799957 29.81159973
-8.43832970 53.66210175 27.87870026
-8.34472179 60.22028351 3.88140106
-8.38516998 52.04719925 38.58349991
-8.34243965 12.23709965 43.03770065
-8.30836010 55.74649811 6.71072006
-8.28129005 58.78910065 6.85799980
-8.25984001 56.54750061 7.35494995
-8.21661568 60.59608078 5.51910162
-8.24740028 53.64039993 46.82559967
-8.11543083 57.07252121 3.63032627
-8.22789001 14.89809990 44.46630096
-8.21741009 54.73939896 5.06796980
-8.21269035 -36.99610138 55.02880096
-8.20985031 54.44829941 50.02470016
-8.10243511 55.70343399 5.54765081
-8.18270016 -14.98700047 36.84159851
-8.17570972 52.44189835 42.88150024
-8.04413795 56.14965057 2.64988971
-8.15616989 -31.18779945 70.12310028
-8.15497971 21.82489967 48.04669952
-8.13912964 43.69219971 33.34120178
-8.12670040 18.20680046 46.19570160
-8.10768032 39.47650146 37.33700180
-8.09696007 0.05234700 72.59750366
-8.09500027 27.90509987 72.04299927
-8.02771950 58.89796066 5.29411888
-8.06867027 36.24850082 40.96630096
-8.04598999 31.44630051 46.30030060
-8.04526043 33.08639908 44.46110153
-8.03252983 -9.75006008 38.29370117
-8.03151989 -1.77547002 41.36040115
-8.00299358 55.03799820 3.94756031
-7.93290663 55.96166229 4.42177582
-7.92588997 -35.23320007 47.79850006
-7.92260981 24.71899986 48.29890060
-7.90139008 52.69039917 30.55660057
-7.84793997 -18.71899986 78.29889679
-7.85524178 -31.38134003 44.39091873
-7.71338987 54.40240097 54.75090027
-7.66071987 26.16010094 72.05809784
-7.65041018 2.43242002 71.97750092
-7.60936022 -27.77589989 75.17939758
-7.60854006 51.03179932 30.26539993
-7.49466991 -12.95989990 76.94259644
-7.43176985 -7.32017994 75.68710327
-7.36786985 22.16769981 72.10590363
-7.31690979 34.42219925 73.50869751
-7.27809000 6.64461994 71.95780182
-7.25884008 -36.73289871 52.02809906
-7.24278021 54.06299973 59.93610001
-7.23545980 40.89030075 72.92060089
-7.21280003 -34.96839905 60.64630127
-7.21200991 -31.33169937 68.40940094
-7.11525011 27.80559921 47.33319855
-7.11452007 -0.19648500 40.17679977
-7.10677004 -28.65509987 42.11899948
-6.94650984 50.60630035 33.98519897
-6.89238024 45.27790070 71.09030151
-6.88629007 -3.65597010 40.17839813
-6.84092999 47.19739914 33.85720062
-6.81816006 -6.41038990 38.97949982
-6.74372005 12.02060032 73.02870178
-6.65990019 -1.32588995 74.50160217
-6.64317989 74.30169678 70.84159851
-6.62000990 49.88309860 38.82960129
-6.56417990 -31.64590073 67.20240021
-6.52053022 79.20410156 70.52999878
-6.49183989 -23.12450027 38.87530136
-6.47434998 3.18341994 39.06150055
-6.46715021 -35.20560074 59.30690002
-6.42909002 51.19400024 47.86479950
-6.42225981 49.67359924 42.79420090
-6.42127991 69.60900116 70.85549927
-6.39153004 74.48650360 67.21990204
-6.39094019 1.43071997 39.38019943
-6.36644983 6.04527998 38.94369888
-6.28034019 25.47540092 45.44279861
-6.24937010 69.70610046 67.52829742
-6.23670006 79.44619751 66.90650177
-6.23109007 83.61740112 70.11840057
-6.21547985 42.84439850 38.35290146
-6.10234022 21.76420021 43.65250015
-6.09428978 52.91989899 65.85949707
-6.02762985 -33.00949860 45.72240067
-6.01933002 -35.51539993 49.54890060
-5.57688093 -32.21492386 65.44240570
-5.98676014 83.95559692 66.73880005
-5.96017981 47.60200119 38.81790161
-5.95872021 50.21469879 68.35569763
-5.94774008 44.40129852 38.68470001
-5.94018984 17.84810066 42.04800034
-5.91776991 9.98647022 39.30849838
-5.91530991 28.25060081 46.08110046
-5.85435009 39.98780060 41.65349960
-5.85290003 16.54770088 73.43119812
-5.82036018 14.00279999 40.39860153
-5.79911995 -27.90679932 72.77140045
-5.79247999 -10.31989956 37.38589859
-5.78668022 -35.29489899 58.13079834
-5.75729990 -28.48970032 42.47900009
-5.75486994 51.96670151 51.56969833
-5.73292017 87.53079987 69.91940308
-5.66976976 64.98380280 70.64119720
-5.66099024 64.77339935 67.80410004
-5.59746981 -5.15851021 75.44830322
-5.58785009 -21.42770004 77.89499664
-5.56199980 -1.32481003 73.76499939
-5.53005981 -15.18350029 77.38950348
-5.52785015 87.92990112 66.90260315
-5.47127008 -16.66810036 36.91159821
-5.44762993 50.21080017 68.71579742
-5.36642981 73.88159943 73.80229950
-5.34228992 35.90930176 45.03409958
-5.32302999 42.33750153 42.20869827
-5.23573017 78.76029968 73.48899841
-5.14760017 -2.59337997 39.09159851
-5.12307978 59.29019928 68.22280121
-5.10186005 27.55590057 73.97059631
-5.09747982 34.24729919 74.63089752
-5.08162022 45.64830017 42.57889938
-5.07480001 22.46910095 73.49240112
-5.03725004 69.25640106 73.60089874
-5.01675987 59.55739975 70.41459656
-4.96963978 2.57971001 73.11090088
-4.93604994 91.05989838 69.90820313
-4.71870804 -32.44206238 63.88901138
-4.89947987 52.75059891 56.19850159
-4.88948011 83.17279816 72.94909668
-4.88199997 -9.44789028 76.34190369
-4.86973000 50.12839890 69.09770203
-4.84242010 33.44900131 45.90119934
-4.83852005 45.05970001 72.00009918
-4.82582998 -35.31869888 56.03020096
-4.80218983 55.21030045 68.30300140
-4.79071999 74.49559784 64.18840027
-4.76219988 91.43659973 67.24230194
-4.74196005 79.59300232 63.93489838
-4.61548948 -28.08044815 71.09169769
-4.68197012 69.47979736 64.80629730
-4.65124989 40.32870102 73.65190125
-4.64786005 -28.36599922 42.46640015
-4.61442995 52.89450073 61.38890076
-4.60174990 -5.28160000 37.95479965
-4.58322001 84.20619965 64.04579926
-4.43032980 87.06109619 72.53800201
-4.42082024 52.16960144 66.53730011
-4.41862011 55.07049942 70.23320007
-4.38559008 -23.41139984 76.14260101
-4.32230997 39.81880188 45.51440048
-4.32060003 52.75529861 56.11439896
-4.30865002 64.37400055 65.62809753
-4.30816984 51.01449966 52.06719971
-4.24890995 64.86579895 73.14080048
-4.16308022 52.96250153 61.58280182
-4.16235018 44.05680084 45.97340012
-4.14415979 -23.36179924 39.57690048
-4.13699007 88.24500275 64.54199982
-4.02970982 -33.50519943 46.90390015
-4.01723003 7.08065987 72.93430328
-3.99898005 33.28540039 45.51520157
-3.98264003 52.26150131 66.73239899
-3.97581005 58.90930176 66.62850189
-3.87413001 94.37950134 69.96720123
-3.86364007 55.40219879 66.78359985
-3.83170009 90.68430328 72.25559998
-3.76536012 -3.26960993 75.18650055
-3.71954012 59.60720062 72.54000092
-3.71221995 94.55139923 67.79820251
-3.68588996 48.07720184 49.55170059
-3.58274007 45.12990189 72.87259674
-3.57012010 -1.22222996 38.24850082
-3.54413009 -34.44800186 53.10940170
-3.48348999 -28.46409988 69.03289795
-3.45325994 50.53170013 71.79820251
-3.42594004 -32.58969879 61.55599976
-3.41961002 91.74870300 65.28040314
-3.39936996 39.23780060 46.75389862
-3.33401990 54.85889816 71.93840027
-3.33065009 12.29689980 73.69049835
-3.29874992 -24.41290092 74.45690155
-3.24024010 -17.82959938 77.24469757
-3.16212010 43.61399841 47.70339966
-3.06067991 26.05870056 42.71440125
-3.05018997 17.56360054 39.72790146
-3.03361011 21.95680046 41.18140030
-3.01598001 -18.44490051 37.94089890
-3.00800991 94.20439911 71.92939758
-3.00063992 -28.73209953 68.01390076
-2.94456005 -30.16749954 43.11289978
-2.94388008 29.05349922 43.71390152
-2.88250995 3.81112003 37.70780182
-2.86445999 8.36516953 37.72449875
-2.85187006 -23.49539948 40.06620026
-2.85067010 16.63349915 74.01390076
-2.83761001 -7.20451021 76.00279999
-2.80206990 0.35780001 37.90179825
-2.77867007 -11.56980038 76.62300110
-2.75099993 96.75060272 69.92209625
-2.73978996 33.32759857 45.09700012
-2.71899009 13.36950016 38.49829865
-2.59250998 96.67990112 68.32879639
-2.56177998 94.70890045 66.28469849
-2.54566002 -1.31430995 74.65920258
-2.02485633 -29.21323967 65.81762695
-2.47303009 73.21350098 75.44770050
-2.39352989 78.12609863 75.21679688
-2.34051991 -24.79789925 73.11129761
-2.32317996 -11.73299980 37.78120041
-2.29646993 -33.22610092 50.59999847
-2.29404998 68.70610046 75.11299896
-2.23259997 27.75510025 74.53530121
-2.21918988 22.38890076 74.14199829
-2.18366003 -32.46429825 59.17739868
-2.15896010 82.71589661 74.52290344
-2.14334989 39.26599884 46.60860062
-2.12385011 96.78810120 71.36389923
-2.09922004 79.42649841 62.46429825
-2.09556007 74.32830048 62.71049881
-2.09024000 -19.47769928 76.48570251
-2.05873990 84.16159821 62.69390106
-2.04923010 69.27809906 63.56250000
-2.03972006 33.43389893 74.93180084
-1.97485995 43.62910080 47.75260162
-1.91815996 -23.80890083 40.33209991
-1.90976000 47.68849945 49.93719864
-1.90839005 -4.90537024 37.69430161
-1.89293003 64.53710175 74.61579895
-1.89049006 86.64119720 74.03369904
-1.88513005 64.13189697 64.57099915
-1.88004005 2.73305011 74.10669708
-1.85026002 88.35690308 63.42229843
-1.83368003 50.34999847 53.46239853
-1.79100001 52.52360153 57.08560181
-1.78685999 50.67580032 73.35900116
-1.73125994 53.05690002 62.39210129
-1.72712004 58.69419861 65.75949860
-1.70468998 59.51549911 73.94789886
-1.68517995 39.80490112 74.58769989
-1.67200994 45.08110046 73.75530243
-1.64981997 55.28440094 65.99379730
-1.61909997 96.66889954 67.19940186
-1.61325002 54.97710037 73.41049957
-1.58789003 90.41300201 73.74479675
-1.56739998 52.19219971 66.02239990
-1.50206006 -19.42900085 39.31760025
-1.48863995 91.98349762 64.54470062
-1.47047997 -24.62890053 71.88819885
-1.40379000 98.61889648 70.00700378
-1.30208004 -29.67819977 63.97589874
-1.27479994 98.49649811 69.06400299
-1.22912002 -32.52330017 55.05839920
-1.21090996 94.08540344 73.20249939
-1.17592001 -32.10079956 48.51630020
-1.16259003 7.38073015 73.64510345
-1.12712002 -30.69680023 43.84040070
-1.07850003 94.92500305 65.77410126
-1.05356002 -21.12339973 75.28410339
-1.01997995 98.75350189 70.84190369
-0.80954897 96.76110077 72.19519806
-0.77384901 -19.82609940 40.56999969
-0.77328199 -5.29034996 75.56130219
-0.67183602 -24.46349907 70.69709778
-0.62390399 -30.15439987 61.77479935
-0.62008500 98.49990082 68.44950104
-0.38943577 96.88899994 66.88122559
-0.45973301 -9.14729023 76.14830017
-0.45579699 -14.00609970 76.58119965
-0.41300800 12.46479893 74.20037079
-0.28430301 -21.53370094 74.23570251
-0.05355436 98.99221039 71.21127319
-0.21295400 -30.63619995 59.86579895
-0.19846900 -26.96710014 40.24800110
0.18462239 100.02333832 70.41182709
-0.17060700 -31.74029922 51.30110168
-0.10622731 -24.75532532 69.53959656
-0.13913099 -36.00279999 7.28455019
0.38179696 99.85468292 69.54093170
-0.05486100 -36.65449905 7.18792009
0.04286997 -35.68801117 8.14465523
0.11641210 98.67099762 68.33617401
0.05769000 -35.84289932 5.90796995
0.09379100 -36.49480057 5.73933983
0.11345200 -36.35800171 8.32211018
0.33147869 -34.95091248 7.42991781
0.15230200 16.71910095 74.59349823
0.15304200 -23.12789917 39.49779892
0.23864400 -14.36999989 38.67060089
0.33495700 -20.35020065 41.01490021
0.67883831 -34.37005234 6.47142839
0.40852207 -35.48880768 5.08524990
0.41603199 -37.11209869 7.06690979
0.42514300 -36.16040039 4.84062004
0.48897901 -15.95349979 76.12799835
0.52256900 -36.98350143 5.70216990
0.54105699 -36.88539886 8.26280022
0.60528898 -25.94020081 66.78749847
0.61913902 -18.34740067 75.23040009
0.63026202 -20.53260040 40.85869980
0.63642198 17.57869911 39.23870087
0.63642198 22.30839920 74.79160309
0.63642198 22.45689964 40.49890137
0.63642198 26.44470024 41.89170074
0.63642198 27.95409966 75.10030365
0.63642198 29.60659981 43.04000092
0.63642198 32.83060074 75.24389648
0.63642198 33.56140137 44.52840042
0.63642198 39.12559891 46.48709869
0.63642198 39.29309845 74.88110352
0.63642198 43.39279938 47.69950104
0.63642198 44.64830017 74.12999725
0.63642198 47.55509949 50.24879837
0.63642198 49.49710083 54.51869965
0.63642198 50.58140182 73.75399780
0.63642198 51.24909973 58.15969849
0.63642198 51.88399887 65.88359833
0.63642198 52.24710083 62.23139954
0.63642198 54.96400070 73.89910126
0.63642198 55.01639938 65.75800323
0.63642198 58.42110062 65.45469666
0.63642198 59.40499878 74.39389801
0.63642198 64.07510376 64.19039917
0.63642198 64.33550262 75.04570007
0.63642198 68.42440033 75.52819824
0.63642198 69.25520325 63.21060181
0.63642198 72.88569641 75.88059998
0.63642198 74.30509949 62.28530121
0.63642198 77.83270264 75.67259979
0.63642198 79.24220276 62.04259872
0.63642198 82.54499817 74.91929626
0.63642198 84.00990295 62.30870056
0.63642198 86.48690033 74.40440369
0.63642198 88.31300354 63.12039948
0.63642198 90.29640198 74.11489868
0.63642198 92.04540253 64.37670135
0.63642198 94.01689911 73.50749969
0.63642198 95.02130127 65.70439911
0.63642198 96.72740173 72.36509705
0.87119061 99.79927826 69.48184967
1.08150327 100.05221558 70.43838501
0.80876255 100.12808990 70.12767792
0.66440398 -26.05200005 39.03120041
0.73611498 -38.58039856 7.00361013
0.73756802 -30.79360008 55.85449982
0.76918399 -36.68220139 4.90916014
0.77788103 -35.23529816 9.25249958
0.82520598 -1.66446996 74.54750061
0.86062098 -30.65180016 49.08129883
0.87526399 -26.78330040 65.13890076
0.89275700 -38.50159836 5.37091017
0.93974519 -38.26978302 8.48340702
1.00060999 -28.26079941 41.77809906
1.03397000 13.27470016 38.42060089
1.18382895 -37.33644104 6.87341166
1.09179997 -39.49470139 6.99665022
1.09582996 -20.58370018 73.00050354
1.10027003 -23.27179909 37.47850037
1.11152005 -35.88840103 9.24403000
1.24932170 -35.80910492 4.23314190
1.24418724 -37.18955231 7.88645124
1.15732753 -34.88957214 4.58037090
1.30847466 -37.12677002 5.47138596
2.89428854 -27.73007011 43.69617081
1.48738956 98.74716187 68.47237396
1.25777996 -39.11909866 8.44099998
1.63631928 -33.09040833 5.96950912
1.27065003 -15.98569965 40.27399826
1.27708006 -38.04259872 4.49906015
1.28767002 -39.37070084 5.25297022
1.28916001 -27.69879913 63.18619919
1.30224001 2.58124995 73.73909760
1.41529810 -36.75323868 5.04016495
1.39244998 -17.02409935 41.91790009
1.43140996 -21.10840034 38.45920181
1.46914995 -26.29840088 37.24879837
1.47656000 -17.79739952 41.79100037
1.48863006 -28.78849983 60.07820129
1.50515997 6.19256020 37.78139877
1.52131999 98.81300354 71.26219940
1.69561064 -36.15584946 8.92767620
1.68034995 7.08098984 73.35610199
1.73446000 -38.80479813 4.28413010
1.99941516 -36.37353897 4.73037243
1.75974000 -30.31019974 51.97320175
1.76612997 96.77719879 66.82879639
1.80183005 1.56411004 37.73960114
2.19638038 -32.96847153 5.06981897
1.70773542 -32.71781540 7.22434807
1.83367002 -40.10499954 6.94441986
1.83825004 -17.98340034 41.69900131
1.87565005 -37.89410019 9.39396954
1.88928998 -33.34249878 10.48400021
1.89212000 -37.26399994 4.02431011
1.93692005 -39.68569946 8.27371025
1.98747003 -11.08650017 75.91069794
2.01941991 -6.61441994 75.42970276
2.03800988 -39.94300079 5.31934977
2.04187989 -34.29150009 10.52190018
2.89758396 -34.96938705 4.24953127
2.08239007 96.76110077 72.19519806
2.08305001 -2.95862007 37.79759979
2.09252000 -32.43529892 10.18109989
2.10163999 -29.60980034 49.20109940
2.15341997 -26.96229935 40.69110107
2.29282999 98.75350189 70.84190369
2.35135007 94.92500305 65.77410126
2.39188004 -34.35010147 4.27158022
2.42113996 -37.82210159 3.75415993
2.42954993 -28.99629974 56.14699936
2.43221998 -35.22969818 10.44340038
2.43971992 -39.35449982 4.43852997
2.44882011 -38.35390091 9.18185043
2.48375010 94.08540344 73.20249939
2.51031995 -26.98320007 34.73630142
2.54071999 -23.85149956 35.23709869
2.54764009 98.49649811 69.06400299
2.60930991 -36.31190109 4.02734995
2.60941005 -16.36499977 74.08080292
2.67663002 98.61889648 70.00700378
2.88656640 -39.55300522 7.78775263
2.76149011 91.98349762 64.54470062
2.96627116 -39.88384628 6.77582073
2.77934003 -16.21150017 42.97629929
2.78083992 -18.78580093 39.85459900
3.85070610 -31.91961288 4.43310022
2.78541136 -35.83024597 10.53129005
2.80051994 -25.60000038 63.05699921
2.80052996 -19.48880005 71.52960205
2.84025002 52.19219971 66.02239990
2.86072993 90.41300201 73.74479675
2.88609004 54.97710037 73.41049957
2.89194012 96.66889954 67.19940186
2.89990997 -22.24900055 35.80210114
2.90393996 -13.26770020 75.21549988
2.92266989 55.28440094 65.99379730
2.94485998 45.08110046 73.75530243
2.95801997 39.80490112 74.58769989
2.97753000 59.51549911 73.94789886
3.13232923 -23.11328125 66.06756592
2.99995995 58.69419861 65.75949860
3.15406704 -39.74772263 5.66528416
3.00411010 53.05690002 62.39210129
3.04622006 -15.45479965 42.94469833
3.05939007 -38.29909897 3.94291997
3.05970001 50.67580032 73.35900116
3.06384993 52.52360153 57.08560181
3.23187041 -38.27219009 8.77192974
3.01398635 -31.03413773 7.67192554
3.08964992 -16.46520042 42.87699890
3.10250998 -20.31180000 70.22589874
3.10651994 50.34999847 53.46239853
3.12310004 88.35690308 63.42229843
3.15525603 -32.60066605 12.49279976
3.15009999 16.63349915 74.12920380
3.23628974 -26.47708702 59.63920593
3.15796995 64.13189697 64.57099915
3.16334009 86.64119720 74.03369904
3.16577005 64.53710175 74.61579895
3.16742992 -31.14730072 12.41629982
3.16901994 -40.39920044 8.55653000
3.17082000 -31.18079948 6.32814980
3.17181993 -36.64649963 3.76604009
3.17947006 -28.24839973 46.26419830
3.18260002 47.68849945 49.93719864
3.24770999 43.62910080 47.75260162
3.25664997 -41.02880096 7.43439007
3.50843120 -39.31056213 5.13936520
3.31257010 33.43389893 74.93180084
3.32207990 69.27809906 63.56250000
3.32994008 -8.38222027 38.64360046
3.33158994 84.16159821 62.69390106
3.33265996 -30.59679985 10.54619980
3.36841011 74.32830048 62.71049881
3.37090993 -25.55789948 30.70389938
3.37206006 79.42649841 62.46429825
3.39668989 96.78810120 71.36389923
3.41619992 39.26599884 46.60860062
3.43179989 82.71589661 74.52290344
3.44638991 -31.41250038 5.30608988
3.46536994 -20.54899979 68.61900330
3.46854997 -38.89879990 9.38875008
3.49202991 22.38890076 74.14199829
3.50544000 27.75510025 74.53530121
3.56689000 68.70610046 75.11299896
3.62899995 -41.05649948 5.88453007
4.13424730 -35.35531616 4.07517099
3.65562010 -13.45409966 41.19660187
3.66637993 78.12609863 75.21679688
3.72589993 -23.74620056 31.04050064
3.72870994 -36.98920059 3.91830993
4.01238155 -33.17998886 4.02582550
3.74587011 73.21350098 75.44770050
3.75042009 -26.80459976 26.77429962
3.75759006 -28.10750008 30.50160027
3.78811002 -27.17989922 38.80599976
3.79203010 -36.56639862 10.20790005
3.79252005 -28.36910057 52.25529861
3.95723653 -38.37290192 4.70044231
3.83463001 94.70890045 66.28469849
3.86535001 96.67990112 68.32879639
3.98154998 -11.07800007 39.63779831
4.01262999 33.32759857 45.09700012
4.01733017 -31.54529953 14.54240036
4.02384996 96.75060272 69.92209625
4.03134012 -27.52039909 44.57809830
4.03568983 -2.33913994 74.14420319
4.03593016 -25.55459976 26.88540077
4.05022001 -29.89459991 14.68980026
4.06409979 -27.10610008 55.99969864
4.06796980 -40.36629868 4.96632004
4.07037020 -36.76330185 10.47449970
4.07236004 -34.00199890 12.22809982
4.04154444 -40.46873856 8.88401699
4.09173012 -29.53499985 12.47169971
4.11452007 2.43530011 73.16570282
4.44498968 -34.26446533 3.97518969
4.17607021 -41.23099899 7.65153980
4.19746017 -20.02379990 36.67589951
4.21673012 29.05349922 43.71390152
4.29633141 -28.81753540 17.52217293
4.27455997 -17.67379951 40.96509933
4.28085995 94.20439911 71.92939758
4.45162821 -29.88134956 18.41657066
4.30645990 21.95680046 41.18140030
4.32304001 17.56360054 39.72790146
4.33352995 26.05870056 42.71440125
4.35669994 -37.15999985 4.41704988
4.39735985 -28.57609940 21.43460083
4.41981983 -15.01749992 43.77500153
4.43495989 43.61399841 47.70339966
4.40703344 -30.26345444 6.82588387
4.45015001 -28.82430077 26.89739990
4.45162010 -14.19979954 72.37429810
4.46028996 -17.29820061 69.99160004
4.52288008 -29.77910042 8.93824005
4.53807020 -27.20179939 21.63019943
4.54794979 -23.37490082 61.90940094
4.55801010 -41.22029877 6.00075006
4.55988979 -27.37269974 35.66299820
4.59265995 -7.93147993 74.32969666
4.60687017 54.85889816 71.93840027
4.96361065 -35.96995926 4.24175358
4.61638021 -30.70199966 5.46123981
4.62717009 -27.58309937 49.48360062
4.65730000 -27.22069931 42.77999878
4.66654015 -29.37150002 10.57439995
4.66718006 -15.28129959 43.62910080
4.66739988 -38.95050049 4.27687979
4.67222023 39.23780060 46.75389862
4.69246006 91.74870300 65.28040314
4.72461987 -14.30949974 44.16080093
4.72610998 50.53170013 71.79820251
4.72919989 -21.70529938 64.21489716
4.75909996 13.36950016 38.78160095
5.10167551 -32.01705933 4.13173914
4.78076982 -34.59069824 12.11559963
4.85558987 45.12990189 72.87259674
4.92387009 -31.18390083 4.63438988
4.92507982 -36.86360168 10.66370010
4.92940998 6.64539003 72.89209747
4.95873022 48.07720184 49.55170059
4.98495007 -40.39860153 4.98224020
4.98506021 94.55139923 67.79820251
4.99238014 59.60720062 72.54000092
4.99796009 -28.58239937 12.36509991
5.06586981 -40.23429871 8.76821041
5.10454988 90.68430328 72.25559998
5.10988998 -33.05350113 14.52610016
5.12717009 -21.54750061 31.79380035
5.13184977 -28.32929993 14.27239990
5.13648987 55.40219879 66.78359985
5.13846016 -19.97400093 65.73739624
5.14508009 -32.33670044 16.67900085
5.14696980 94.37950134 69.96720123
5.15582991 -30.32609940 21.27890015
5.15697002 -40.90589905 7.69402981
5.24866009 58.90930176 66.62850189
5.25323009 -38.69739914 9.56250000
5.25547981 52.26150131 66.73239899
5.27182007 33.28540039 45.51520157
5.27371979 -37.17839813 3.92810988
5.33994007 -27.03840065 47.19039917
5.36463022 -31.42970085 18.43300056
5.44721842 -27.09132004 17.32614708
5.40983009 88.24500275 64.54199982
5.43509007 -23.51939964 27.06520081
5.43519020 44.05680084 45.97340012
5.43592978 52.96250153 61.58280182
5.48679018 -40.84410095 6.21123981
5.51665020 -28.54649925 30.71999931
5.51753998 -38.91220093 4.24965000
5.52175999 64.86579895 73.14080048
5.57033014 8.36516953 38.28590012
5.68994045 -35.03043747 4.05867672
5.57783985 -26.03240013 52.41590118
5.58100986 51.01449966 52.06719971
5.58150005 64.37400055 65.62809753
5.58598995 -23.10129929 59.25559998
5.59345007 52.75529861 56.11439896
5.59514999 39.81880188 45.51440048
5.61818981 -25.48299980 21.78000069
5.67444992 -10.29609966 73.47709656
5.69147015 55.07049942 70.23320007
5.69365978 52.16960144 66.53730011
5.69941998 -24.72719955 56.06159973
5.70316982 87.06109619 72.53800201
6.26921368 -36.37832642 10.57271957
5.76750994 -19.25270081 36.72219849
5.77761984 12.02060032 73.59980011
5.84857988 -40.02389908 5.29174995
5.85606003 84.20619965 64.04579926
5.87503004 -17.73450089 67.17800140
5.88726997 52.89450073 61.38890076
5.92132998 -29.07309914 27.03079987
5.92408991 40.32870102 73.65190125
5.95482016 69.47979736 64.80629730
6.12637186 -16.68747902 40.96388245
6.01480007 79.59300232 63.93489838
6.03411007 -26.49340057 45.19490051
6.03503990 91.43659973 67.24230194
6.06357002 74.49559784 64.18840027
5.96517706 -30.50336075 6.25500441
6.06787014 -37.01369858 3.88146996
6.24307442 -37.89077759 9.04442787
6.07502985 55.21030045 68.30300140
6.07868004 -20.63500023 61.72050095
6.11136007 45.05970001 72.00009918
6.11526012 33.44900131 45.90119934
6.13017988 3.81132007 38.54339981
6.13852978 -39.03160095 8.16055012
6.14257002 50.12839890 69.09770203
6.14803982 16.54770088 73.66790009
6.53493452 -34.30353165 4.07331991
6.16232014 83.17279816 72.94909668
6.17231989 52.75059891 56.19850159
6.09156418 -19.58958817 63.65540314
6.17557001 -11.39540005 42.63169861
6.20889997 91.05989838 69.90820313
7.19349527 -31.91228294 4.44212532
6.22765017 -29.58049965 9.00549030
6.23083019 -31.19709969 4.93773985
6.24183989 -26.55450058 43.31119919
6.28043985 -39.31760025 7.23293018
6.28960991 59.55739975 70.41459656
6.29325008 -25.18770027 49.01259995
6.29519987 -38.62789917 4.62133980
6.30587006 -34.83060074 12.12679958
6.31009007 69.25640106 73.60089874
6.34764004 22.46910095 73.49240112
6.35446978 45.64830017 42.57889938
6.85981798 -35.35090637 4.23006248
6.37031984 34.24729919 74.63089752
6.37471008 27.55590057 73.97059631
6.39369011 -28.99760056 10.55710030
6.39591980 59.29019928 68.22280121
6.40480995 -26.89450073 36.37580109
6.48762989 0.12341100 38.93859863
6.48858976 -38.86859894 8.17745972
6.50858021 78.76029968 73.48899841
6.53573990 -26.55330086 41.11040115
6.76217890 -38.83655930 6.23355627
6.55630016 -30.98189926 21.34189987
6.58240986 -14.21790028 45.00690079
6.59587002 42.33750153 42.20869827
6.59984016 -20.93250084 31.75609970
6.61512995 35.90930176 45.03409958
6.63927984 73.88159943 73.80229950
6.66205978 -39.07970047 7.24660015
6.67774010 -13.64920044 45.29880142
6.72046995 50.21080017 68.71579742
6.73646021 -28.07500076 12.44519997
6.77466011 -22.57889938 56.21429825
6.78113985 -36.76179886 4.24778986
6.80070019 87.92990112 66.90260315
7.06972313 -38.32711029 5.78872442
6.84221983 -32.88619995 16.70779991
6.85473013 -20.58359909 59.03810120
6.90439987 -32.19820023 18.47929955
6.90711021 -37.94309998 9.80673981
6.93382978 64.77339935 67.80410004
6.93432999 -22.82430077 26.94079971
6.94260979 64.98380280 70.64119720
6.95288992 -12.78880024 45.31570053
6.97590017 -33.41899872 14.63710022
7.22596979 -25.05448151 45.52214432
6.98952007 -23.81690025 52.55609894
7.00577021 87.53079987 69.91940308
7.02427006 -27.41320038 14.37580013
7.02770996 51.96670151 51.56969833
7.03603983 -39.22980118 8.82779026
7.06334019 -18.48469925 62.05709839
7.09277010 -3.57339001 72.81310272
7.10306978 -24.83099937 21.77560043
7.12720013 39.98780060 41.65349960
7.13254976 -36.02489853 10.84399986
7.13448000 -16.21249962 41.25070190
7.32642412 -37.43414307 5.42378092
7.15265989 -7.91369009 41.07180023
7.18815994 28.25060081 46.08110046
7.19119978 -27.80669975 31.24880028
7.21302986 17.84810066 42.04800034
7.22059011 44.40129852 38.68470001
7.23156023 50.21469879 68.35569763
7.23302984 47.60200119 38.81790161
7.25960016 83.95559692 66.73880005
7.28026009 -26.42440033 16.60470009
7.29635000 -39.50090027 7.72738981
7.34919024 -18.61070061 36.61059952
7.35052013 -16.45100021 40.57270050
7.36713982 52.91989899 65.85949707
7.37517977 21.76420021 43.65250015
7.38316011 -25.68720055 18.66020012
7.38724995 -3.80448008 39.71440125
7.87105465 -33.59780884 4.41073179
7.45717001 -11.39150047 70.95210266
7.61734343 -36.18502426 5.12388229
7.48832989 42.84439850 38.35290146
7.50393009 83.61740112 70.11840057
7.50954008 79.44619751 66.90650177
7.52222013 69.70610046 67.52829742
7.55319023 25.47540092 45.44279861
7.59328985 -37.76169968 10.27429962
7.65072012 14.00279999 40.86019897
7.65668011 -39.09840012 6.50929022
7.66438007 74.48650360 67.21990204
7.67048979 -34.98519897 4.68027020
7.68988991 -14.07600021 68.64730072
7.69412994 69.60900116 70.85549927
7.69509983 49.67359924 42.79420090
7.70193005 51.19400024 47.86479950
7.70378017 -35.83020020 11.24790001
7.72248983 -25.02050018 43.29150009
7.74769020 -34.36199951 12.40190029
7.77821016 1.57407999 72.31510162
7.78958988 -17.86940002 59.35729980
7.79336977 79.20410156 70.52999878
7.79547977 -28.61170006 27.00889969
7.80683994 -25.37840080 41.46070099
7.83158016 -39.02239990 9.24195957
7.85810852 -30.27567863 8.52982903
8.02285767 -31.51897049 5.36346912
7.88326979 -20.07200050 56.25230026
7.89285994 49.88309860 38.82960129
7.90452003 -20.38789940 31.74349976
7.90770006 -25.97620010 36.84289932
7.91601992 74.30169678 70.84159851
7.97748995 -38.42570114 5.81070995
7.97785997 -30.55439949 21.42770004
8.01150990 -16.10989952 62.96459961
8.06805992 -17.38380051 56.41080093
8.07273960 -21.54290009 52.94620132
8.17295170 -32.51502228 4.48506021
8.08026981 -29.29470062 10.65410042
8.11378002 47.19739914 33.85720062
8.14334965 -39.29579926 8.05657005
8.14385986 -15.09360027 65.55419922
8.16522980 45.27790070 71.09030151
8.20331955 -31.82010078 18.48489952
8.20394039 -22.34339905 48.65359879
8.21936035 50.60630035 33.98519897
8.22764015 9.98647022 40.11840057
8.25922966 -15.86489964 53.54800034
8.28166962 6.53599024 72.01069641
8.28699017 -32.33039856 16.65970039
8.30300045 -35.43719864 11.34329987
8.31562996 -13.81400013 50.21490097
8.32923985 -37.30540085 10.37310028
8.33485031 -37.39070129 5.30066013
8.36452007 -28.13990021 12.51270008
8.70343781 -34.29890823 4.86314297
8.38109970 -8.79854012 44.06990051
8.38809967 27.80559921 47.33319855
8.39923954 -14.83040047 49.66139984
8.42329025 -32.67480087 14.89589977
8.45149040 -38.92259979 6.72979021
8.48624039 -14.65950012 53.86009979
8.48752975 -26.90530014 31.78429985
8.50831032 40.89030075 72.92060089
8.51562023 54.06299973 59.93610001
8.51593018 -12.87940025 46.57059860
8.53065968 -13.89990044 45.93870163
8.54708958 -15.19340038 58.80690002
8.54841042 -15.77560043 41.51800156
8.55986977 -15.43719959 56.77040100
8.56847000 -38.41009903 9.38484955
8.58975029 34.42219925 73.50869751
8.59424019 -15.04220009 60.53300095
8.62028027 -35.92829895 4.92192984
8.64070988 22.16769981 72.10590363
8.68441010 -11.57880020 46.94559860
8.69589043 -27.24500084 14.29930019
8.70069027 -16.21120071 40.32600021
8.70137024 -38.25559998 5.93124008
8.75067997 -6.55891991 71.56759644
8.75930023 -22.49920082 26.88039970
8.80259037 -24.72489929 21.70070076
8.80766964 -18.89100075 53.12699890
8.83345985 -38.64849854 8.30698967
8.85165024 -32.23210144 5.11543989
8.88138008 51.03179932 30.26539993
8.89126015 -33.46569824 12.83069992
8.89317036 -18.67569923 36.60120010
8.90023994 -16.86860085 38.84049988
8.90159035 -20.96870041 31.73870087
8.91038990 -22.00709915 46.07040024
8.93356991 26.16010094 72.05809784
8.98624039 54.40240097 54.75090027
8.99139023 -37.31880188 5.41058016
9.02882957 -10.73309994 50.21390152
9.04395962 -19.73259926 47.97850037
9.04629993 11.63290024 72.16210175
9.04841042 -38.36230087 7.04645014
9.05165958 -34.74520111 11.26910019
9.11102009 6.04527998 40.17990112
9.12300968 -26.16489983 16.44199944
9.28567505 -37.05840683 9.18035221
9.17424011 52.69039917 30.55660057
9.18669987 16.58600044 72.09190369
9.18933964 -5.07891989 42.47069931
9.22989464 -32.18716431 5.86278629
9.19544983 24.71899986 48.29890060
9.49564362 -37.22210312 6.06014013
9.24566460 56.19137955 3.96911263
9.22073746 55.75197220 4.58786297
9.22488976 -24.00749969 37.14739990
